0.015635 -0.341374 4.83154
0.011947 -0.327459 4.8311
0.011644 -0.313359 4.82678
0.011353 -0.297821 4.82159
0.011926 -0.298173 4.82296
0.009786 -0.274514 4.81912
0.014392 -0.26706 4.81912
0.01095 -0.256672 4.8157
0.007436 -0.224979 4.79453
0.007083 -0.22529 4.79468
0.002936 -0.218626 4.79446
0.006283 -0.212294 4.79178
0.002775 -0.205789 4.79222
0.004321 -0.19875 4.78761
-0.000472 -0.192432 4.78691
0.01105 -0.166759 4.79984
0.014574 -0.160396 4.81431
0.146332 -1.11018 5.28851
0.142803 -1.10777 5.28747
0.144371 -1.10682 5.28819
0.142854 -1.10572 5.287
0.144166 -1.09676 5.28066
0.123388 -1.01274 5.21529
0.117926 -1.01544 5.21712
0.119923 -1.00741 5.2134
0.123076 -1.00181 5.2111
0.116664 -0.986858 5.20263
0.104405 -0.950609 5.17028
0.109201 -0.953155 5.17191
0.100484 -0.930932 5.15383
0.098618 -0.933597 5.15496
0.103882 -0.926552 5.15169
0.091481 -0.89722 5.11846
0.086809 -0.88147 5.11734
0.090513 -0.887968 5.11704
0.090653 -0.874525 5.11548
0.08622 -0.868248 5.11425
0.085185 -0.855909 5.11007
0.089422 -0.862628 5.11187
0.089286 -0.849887 5.10828
0.089011 -0.849445 5.10836
0.085351 -0.843432 5.10714
0.089686 -0.836718 5.10556
0.085487 -0.829748 5.10421
0.08914 -0.821919 5.10215
0.089242 -0.821938 5.10235
0.089146 -0.809147 5.09992
0.084788 -0.802282 5.0993
0.084556 -0.801544 5.09941
0.08806 -0.79433 5.09645
0.083802 -0.78816 5.09502
0.087739 -0.782381 5.08992
0.085103 -0.768269 5.08641
0.084336 -0.775125 5.09168
0.081881 -0.753232 5.08229
0.078812 -0.754368 5.08357
0.083028 -0.747217 5.07656
0.082 -0.74801 5.07819
0.076138 -0.738349 5.07243
0.077032 -0.723554 5.05993
0.067263 -0.704663 5.04206
0.067431 -0.699607 5.03776
0.067291 -0.695867 5.03282
0.065727 -0.688145 5.02714
0.0652 -0.68253 5.02233
0.060723 -0.660279 5.00323
0.057824 -0.665537 5.007
0.05623 -0.654539 5.00228
0.058841 -0.64814 4.99839
0.054191 -0.641807 4.99703
0.0577 -0.635328 4.99457
0.052217 -0.628055 4.9909
0.054134 -0.622507 4.98667
0.049671 -0.617077 4.98613
0.051853 -0.61074 4.98143
0.048379 -0.599561 4.97752
0.049202 -0.593302 4.97421
0.047103 -0.581387 4.96903
0.039199 -0.55614 4.95218
0.044883 -0.560256 4.95233
0.039121 -0.550357 4.9478
0.03985 -0.541287 4.94064
0.036279 -0.529925 4.9358
0.025991 -0.503515 4.9098
0.026898 -0.487198 4.89521
0.022661 -0.477273 4.88965
0.018918 -0.463099 4.88649
0.021958 -0.456675 4.883
0.021917 -0.456713 4.88307
0.019239 -0.442019 4.87739
0.02184 -0.438215 4.87394
0.017444 -0.431718 4.87162
0.018934 -0.427699 4.86936
0.015304 -0.425681 4.86928
0.017775 -0.419239 4.86485
0.012681 -0.412738 4.86339
0.015335 -0.406408 4.8593
0.015245 -0.406362 4.85932
0.012949 -0.398268 4.85745
0.015365 -0.391443 4.85355
0.010785 -0.384587 4.85383
0.012683 -0.378294 4.84891
0.010741 -0.378087 4.84936
0.012368 -0.37207 4.84441
0.009319 -0.361829 4.84021
0.008753 -0.361431 4.84091
0.010746 -0.353092 4.83568
0.009018 -0.34768 4.83625
0.004878 -0.34104 4.83643
0.008182 -0.335074 4.83348
0.007404 -0.321055 4.82962
0.002729 -0.313351 4.82807
0.006654 -0.306179 4.82479
0.006745 -0.306074 4.82471
0.001922 -0.297805 4.82232
0.005824 -0.29544 4.82098
0.008868 -0.291572 4.82387
0.00095 -0.284537 4.81984
0.001268 -0.273426 4.81907
0.005278 -0.266977 4.81869
0.002392 -0.260229 4.81799
0.005013 -0.25268 4.81382
0.002485 -0.245162 4.81112
-0.001402 -0.212238 4.79422
-0.005953 -0.205026 4.79317
-0.002912 -0.198697 4.78968
-0.000579 -0.182374 4.78958
-0.004354 -0.18599 4.78786
-0.003001 -0.176533 4.79655
-0.000339 -0.176194 4.79196
0.002919 -0.171376 4.79629
-0.001012 -0.16602 4.80091
0.006961 -0.158842 4.8223
0.137934 -1.10967 5.28992
0.1383 -1.10993 5.28993
0.135725 -1.10878 5.28951
0.13555 -1.11414 5.29303
0.135872 -1.11327 5.29327
0.132035 -1.10959 5.29102
0.13752 -1.10488 5.28663
0.139235 -1.1037 5.28769
0.137298 -1.0953 5.283
0.132179 -1.09291 5.28142
0.116725 -1.01303 5.21564
0.109984 -1.0124 5.2158
0.110454 -1.01292 5.21618
0.113184 -1.00794 5.21356
0.111727 -0.989468 5.20359
0.103682 -0.973788 5.18814
0.103913 -0.960497 5.17688
0.098885 -0.958622 5.17463
0.084611 -0.902302 5.12132
0.082697 -0.887704 5.11796
0.079237 -0.894802 5.11984
0.078794 -0.88122 5.11789
0.082526 -0.874652 5.11617
0.078103 -0.868227 5.11442
0.081519 -0.861909 5.11209
0.077549 -0.855766 5.11066
0.081426 -0.849819 5.10889
0.077581 -0.843571 5.10753
0.08125 -0.836615 5.10561
0.07748 -0.829839 5.10484
0.076529 -0.816893 5.10299
0.076111 -0.81631 5.103
0.081141 -0.822253 5.10349
0.080852 -0.809337 5.10172
0.076534 -0.80193 5.10093
0.075557 -0.801176 5.1006
0.080737 -0.794172 5.09784
0.075981 -0.788247 5.09611
0.079545 -0.781406 5.09326
0.075397 -0.775238 5.09218
0.072621 -0.762414 5.08835
0.078817 -0.759774 5.08726
0.072752 -0.756798 5.0851
0.072862 -0.751176 5.0818
0.076323 -0.74316 5.07669
0.061954 -0.705983 5.04503
0.062036 -0.701254 5.04073
0.053921 -0.685928 5.02914
0.059693 -0.689594 5.02967
0.059694 -0.684309 5.02568
0.053838 -0.660196 5.00624
0.051661 -0.665696 5.01029
0.049599 -0.65461 5.00495
0.051828 -0.648257 5.00134
0.046703 -0.641963 5.00012
0.049799 -0.635221 4.99648
0.044964 -0.628354 4.99465
0.047596 -0.622474 4.98984
0.042846 -0.616839 4.9883
0.043169 -0.611193 4.98538
0.0457 -0.605604 4.98143
0.042051 -0.593306 4.97692
0.040137 -0.581394 4.97195
0.044519 -0.58718 4.97258
0.040697 -0.573764 4.9659
0.041074 -0.568766 4.96254
0.033628 -0.557388 4.95614
0.038964 -0.561294 4.95659
0.039109 -0.561457 4.95633
0.03213 -0.550341 4.95094
0.033604 -0.543445 4.946
0.034648 -0.535519 4.93954
0.030014 -0.529982 4.94012
0.030607 -0.524093 4.93502
0.030097 -0.519651 4.92853
0.020659 -0.493792 4.90373
0.022002 -0.497578 4.9091
0.015711 -0.486217 4.89665
0.018329 -0.477377 4.89191
0.018242 -0.46996 4.88919
0.014425 -0.456751 4.8863
0.017057 -0.450279 4.882
0.014547 -0.435398 4.87472
0.012342 -0.431621 4.8731
0.00979 -0.431718 4.87427
0.007504 -0.425576 4.87169
0.007443 -0.425165 4.87175
0.010129 -0.419145 4.86759
0.007884 -0.406365 4.86275
0.00549 -0.393708 4.85922
0.005509 -0.378611 4.85292
0.005548 -0.372061 4.84866
0.006436 -0.367434 4.84517
0.002733 -0.361905 4.84488
0.001289 -0.361157 4.84468
0.001502 -0.361376 4.84465
0.003216 -0.354592 4.84028
0.003645 -0.354842 4.8405
0.001629 -0.34776 4.8394
0.00065 -0.334369 4.83637
-0.001058 -0.325278 4.83434
0.003949 -0.327036 4.83314
-0.001537 -0.306164 4.8268
-0.001386 -0.291166 4.82291
-0.005892 -0.281157 4.81996
-0.003394 -0.266977 4.81891
-0.001798 -0.253161 4.81771
-0.00536 -0.245129 4.81343
-0.007185 -0.232459 4.80649
-0.006097 -0.226171 4.80081
-0.005343 -0.21772 4.79679
-0.008523 -0.212252 4.79686
-0.006343 -0.205702 4.79291
-0.011024 -0.199387 4.79223
-0.010997 -0.19967 4.79197
-0.007825 -0.19237 4.78882
-0.012308 -0.182037 4.78915
-0.001224 -0.170443 4.80379
0.001019 -0.164577 4.81581
0.130326 -1.11624 5.29517
0.129599 -1.11653 5.29451
0.13082 -1.1103 5.29231
0.127098 -1.11117 5.29383
0.124907 -1.11025 5.29349
0.10692 -1.01642 5.21837
0.104179 -1.01175 5.21566
0.107321 -1.00745 5.21333
0.101261 -1.00707 5.21333
0.104202 -1.00313 5.21037
0.098323 -0.971669 5.18605
0.089188 -0.958762 5.17435
0.093838 -0.956583 5.17252
0.075325 -0.901521 5.12151
0.075111 -0.887831 5.11975
0.071186 -0.881276 5.11895
0.074629 -0.874593 5.11667
0.070383 -0.868317 5.11533
0.070661 -0.868612 5.11542
0.074201 -0.861914 5.11312
0.069678 -0.855533 5.1109
0.07361 -0.849613 5.10921
0.075844 -0.831243 5.10541
0.073061 -0.836623 5.10599
0.071709 -0.837748 5.10644
0.07166 -0.824445 5.10422
0.067879 -0.816999 5.10353
0.073051 -0.822286 5.10387
0.072225 -0.80944 5.10237
0.07131 -0.808657 5.10221
0.0713 -0.794734 5.09896
0.071856 -0.781208 5.0946
0.067875 -0.775154 5.09334
0.07165 -0.76928 5.09123
0.067192 -0.759748 5.088
0.067059 -0.765363 5.09125
0.067484 -0.754118 5.08532
0.062912 -0.747444 5.08085
0.065896 -0.741062 5.07841
0.048814 -0.694296 5.03673
0.054241 -0.697604 5.03707
0.048104 -0.688103 5.03213
0.054462 -0.692047 5.03349
0.054644 -0.692132 5.03375
0.047047 -0.677562 5.02669
0.051451 -0.676238 5.02153
0.041468 -0.660267 5.01244
0.04723 -0.660195 5.00894
0.048032 -0.665606 5.01421
0.042922 -0.65459 5.00777
0.045274 -0.649232 5.0043
0.04089 -0.643323 5.00347
0.042168 -0.635286 4.99916
0.038274 -0.628403 4.99755
0.040571 -0.622766 4.99345
0.036294 -0.611219 4.98779
0.038711 -0.60556 4.98351
0.039525 -0.601453 4.98087
0.034868 -0.595064 4.9795
0.037423 -0.587109 4.97512
0.033124 -0.581373 4.97473
0.032158 -0.585618 4.97706
0.035545 -0.575756 4.97052
0.03011 -0.571636 4.97112
0.033622 -0.567141 4.96553
0.035498 -0.569934 4.96627
0.028268 -0.563071 4.96493
0.033505 -0.562223 4.96045
0.028135 -0.55772 4.96028
0.02828 -0.552806 4.95606
0.026568 -0.543466 4.9502
0.027044 -0.54341 4.94997
0.028902 -0.536861 4.94601
0.024133 -0.530341 4.94498
0.023063 -0.523788 4.93765
0.024958 -0.523736 4.9387
0.024362 -0.521782 4.93221
0.014026 -0.491091 4.90338
0.011751 -0.463225 4.89047
0.011716 -0.463273 4.89055
0.006909 -0.456767 4.8896
0.009559 -0.450302 4.88536
0.007853 -0.43965 4.87742
0.004657 -0.444395 4.8836
0.00208 -0.431705 4.87717
0.002725 -0.419153 4.87119
0.005228 -0.412734 4.86696
0.003088 -0.403063 4.86284
0.000809 -0.387057 4.85907
-0.000636 -0.373935 4.85338
-0.00038 -0.367463 4.84975
-0.004484 -0.362118 4.84866
-0.002086 -0.355238 4.84456
-0.006797 -0.34868 4.84416
-0.007401 -0.338267 4.84063
-0.002654 -0.341071 4.83919
-0.008306 -0.31765 4.83104
-0.00547 -0.311226 4.82873
-0.010837 -0.305977 4.82739
-0.006292 -0.299289 4.82545
-0.011632 -0.289653 4.82547
-0.009906 -0.274553 4.81996
-0.010378 -0.264232 4.82112
-0.007281 -0.257645 4.81836
-0.009169 -0.243076 4.81724
-0.013367 -0.231595 4.81116
-0.012115 -0.226286 4.80633
-0.011095 -0.219989 4.80056
-0.015724 -0.193733 4.79122
-0.013283 -0.182516 4.79465
-0.011974 -0.175239 4.79797
-0.009812 -0.170562 4.81189
0.1253 -1.11851 5.29696
0.12474 -1.1183 5.29685
0.120307 -1.12048 5.29916
0.119755 -1.12017 5.2992
0.119763 -1.10755 5.29232
0.097455 -1.00338 5.2103
0.094071 -1.0031 5.21023
0.06626 -0.898731 5.12413
0.06822 -0.889309 5.11976
0.063677 -0.881287 5.11985
0.067121 -0.874871 5.11758
0.066854 -0.874568 5.1175
0.062912 -0.868307 5.11618
0.063169 -0.868597 5.11624
0.066432 -0.862059 5.11383
0.066413 -0.862183 5.114
0.062829 -0.85796 5.11287
0.068148 -0.845554 5.10846
0.063636 -0.838225 5.10737
0.067797 -0.831179 5.10605
0.063005 -0.825245 5.10469
0.063645 -0.824407 5.10495
0.066924 -0.81637 5.10327
0.062535 -0.808754 5.10239
0.067142 -0.801401 5.10154
0.059968 -0.79316 5.09916
0.064016 -0.78792 5.09816
0.060305 -0.782225 5.09581
0.061826 -0.769796 5.09185
0.05798 -0.763191 5.09016
0.061333 -0.756753 5.0864
0.06302 -0.75331 5.08447
0.058573 -0.740773 5.07852
0.049112 -0.712108 5.05622
0.041318 -0.693976 5.03729
0.041474 -0.688156 5.03392
0.042327 -0.690295 5.03519
0.040326 -0.677627 5.02847
0.044251 -0.682954 5.03031
0.043809 -0.672363 5.02476
0.044199 -0.672046 5.02493
0.042623 -0.666491 5.01789
0.03625 -0.661842 5.01687
0.036702 -0.654622 5.01139
0.038434 -0.649045 5.00709
0.034623 -0.635187 5.00145
0.03467 -0.618751 4.99301
0.030893 -0.612024 4.99048
0.030715 -0.611932 4.99048
0.029566 -0.606913 4.98748
0.029644 -0.606989 4.98753
0.032261 -0.601538 4.98392
0.032339 -0.601591 4.98392
0.02995 -0.588082 4.97787
0.028853 -0.592324 4.98007
0.027365 -0.578517 4.97589
0.023165 -0.564447 4.97012
0.022439 -0.55878 4.96351
0.022688 -0.553938 4.95966
0.022089 -0.5482 4.95358
0.019221 -0.543838 4.95375
0.021685 -0.536955 4.94937
0.017156 -0.530502 4.94867
0.018307 -0.523874 4.94255
0.008301 -0.492064 4.90745
0.003271 -0.472531 4.89808
0.004319 -0.463282 4.89403
-0.000748 -0.456738 4.89213
-0.000347 -0.456699 4.89191
0.002312 -0.450285 4.88815
-0.000204 -0.438238 4.88187
-0.002551 -0.444389 4.88648
-0.000221 -0.425542 4.87475
-0.000026 -0.425164 4.87506
-0.002642 -0.425292 4.87631
-0.002034 -0.412759 4.87096
-0.006417 -0.409041 4.87145
-0.003862 -0.403077 4.86708
-0.007062 -0.398208 4.86645
-0.002636 -0.393692 4.8629
-0.00718 -0.387143 4.86163
-0.0037 -0.380519 4.8579
-0.007185 -0.369111 4.85268
-0.011883 -0.361726 4.85201
-0.006272 -0.361046 4.8483
-0.01006 -0.354068 4.84755
-0.010414 -0.345455 4.84508
-0.011714 -0.332052 4.84093
-0.00919 -0.325203 4.83659
-0.014025 -0.317917 4.83615
-0.013461 -0.311002 4.82972
-0.01519 -0.30542 4.83042
-0.015242 -0.296348 4.8282
-0.012701 -0.281269 4.82287
-0.0172 -0.27484 4.82254
-0.018304 -0.26945 4.824
-0.014635 -0.257654 4.8207
-0.014154 -0.239101 4.81495
-0.019568 -0.23119 4.81612
-0.017345 -0.219894 4.80646
-0.021169 -0.213925 4.80828
-0.023165 -0.204365 4.80237
-0.022834 -0.203969 4.80267
-0.022794 -0.192244 4.79511
-0.017973 -0.182656 4.79903
0.114092 -1.11578 5.29601
0.108855 -1.11241 5.29532
0.109114 -1.10679 5.29292
0.111608 -1.09763 5.28621
0.108311 -1.09777 5.28751
0.081076 -0.981484 5.19358
0.077623 -0.958083 5.17432
0.058829 -0.902064 5.12518
0.06258 -0.896196 5.12365
0.059018 -0.889377 5.12047
0.059647 -0.874864 5.11842
0.058201 -0.875016 5.11908
0.055076 -0.868307 5.11607
0.055457 -0.85787 5.11292
0.055892 -0.852374 5.11118
0.059811 -0.8455 5.10955
0.059182 -0.852111 5.11119
0.055404 -0.838314 5.10873
0.059513 -0.831225 5.10726
0.055443 -0.824669 5.10611
0.059115 -0.816885 5.10402
0.059114 -0.817838 5.10396
0.054009 -0.80905 5.10325
0.058067 -0.801076 5.10119
0.056989 -0.788052 5.09899
0.053821 -0.782789 5.09793
0.053974 -0.769979 5.09232
0.049703 -0.763044 5.08937
0.053597 -0.757342 5.08734
0.053967 -0.751624 5.08297
0.053691 -0.745339 5.07957
0.047319 -0.747592 5.08176
0.045795 -0.733973 5.0755
0.049465 -0.739247 5.07784
0.044455 -0.721679 5.06806
0.044188 -0.71719 5.06352
0.043855 -0.713215 5.05954
0.032928 -0.689661 5.03513
0.033272 -0.677271 5.02896
0.036871 -0.682773 5.0312
0.036744 -0.671829 5.02581
0.03695 -0.671493 5.02562
0.033108 -0.66588 5.02297
0.032798 -0.661673 5.01828
0.032157 -0.649252 5.01058
0.03225 -0.642167 5.00711
0.027312 -0.635385 5.00452
0.030271 -0.628791 5.00058
0.025741 -0.623032 4.99847
0.02824 -0.61744 4.99439
0.028109 -0.617411 4.99427
0.025348 -0.601531 4.986
0.024219 -0.585514 4.97924
0.019578 -0.578588 4.9783
0.018342 -0.56499 4.974
0.02277 -0.571675 4.97481
0.014334 -0.557675 4.96691
0.015342 -0.556228 4.96383
0.016651 -0.549841 4.95795
0.011978 -0.543852 4.95608
0.015116 -0.537509 4.95251
0.014705 -0.537503 4.95233
0.010227 -0.531626 4.95081
0.012482 -0.520315 4.94158
0.00666 -0.512171 4.9359
0.00277 -0.487731 4.90693
-0.003029 -0.482844 4.9061
-0.004195 -0.472569 4.90135
-0.001854 -0.465961 4.89663
-0.005317 -0.450315 4.89126
-0.00489 -0.450283 4.89106
-0.007395 -0.438287 4.88537
-0.005388 -0.431716 4.88041
-0.010178 -0.425308 4.87997
-0.008779 -0.415351 4.87555
-0.01097 -0.403123 4.87039
-0.010404 -0.403561 4.87063
-0.011331 -0.391526 4.86482
-0.015455 -0.38648 4.86304
-0.016273 -0.372113 4.85796
-0.016341 -0.355216 4.85196
-0.018044 -0.346971 4.8501
-0.015477 -0.338916 4.84425
-0.019271 -0.332258 4.8443
-0.01658 -0.325024 4.84029
-0.021561 -0.318543 4.83948
-0.019349 -0.311087 4.83363
-0.021933 -0.305439 4.83384
-0.019741 -0.289603 4.82723
-0.020679 -0.281028 4.82397
-0.018617 -0.262457 4.82425
-0.020683 -0.255501 4.82392
-0.019769 -0.235702 4.82217
-0.022468 -0.240313 4.82483
-0.024246 -0.228887 4.82219
-0.024504 -0.229459 4.82211
-0.024122 -0.226252 4.81784
-0.023273 -0.220182 4.81196
-0.02761 -0.21451 4.81271
-0.025513 -0.209424 4.80739
-0.028729 -0.202323 4.80727
-0.027175 -0.197008 4.80151
-0.027074 -0.188782 4.79387
-0.027412 -0.191372 4.80301
-0.029043 -0.184135 4.80213
-0.024432 -0.177601 4.80395
-0.018973 -0.172314 4.81909
-0.013974 -0.163994 4.82949
-0.015417 -0.157879 4.8334
0.136296 -1.1998 5.39297
0.10885 -1.1175 5.29848
0.104023 -1.11409 5.29799
0.103895 -1.10958 5.29451
0.106224 -1.1046 5.29172
0.10583 -1.1019 5.29095
0.101929 -1.09806 5.28823
0.096433 -1.08393 5.27949
0.096344 -1.06572 5.26522
0.091382 -1.06265 5.26364
0.084862 -1.01125 5.2189
0.084214 -1.01152 5.21877
0.079064 -1.01361 5.2209
0.073801 -0.994225 5.20254
0.072964 -0.973609 5.18971
0.06715 -0.95963 5.1757
0.051012 -0.904464 5.1255
0.055449 -0.898211 5.12139
0.049827 -0.889476 5.11983
0.054258 -0.881249 5.12026
0.048868 -0.873925 5.11648
0.051135 -0.864224 5.11567
0.052033 -0.864179 5.11568
0.048015 -0.857862 5.11324
0.051701 -0.845456 5.11068
0.05183 -0.851898 5.11165
0.04661 -0.837309 5.1085
0.04743 -0.838469 5.10993
0.04765 -0.824386 5.10784
0.051208 -0.817978 5.10539
0.046921 -0.811389 5.10458
0.049893 -0.800771 5.10212
0.046406 -0.795221 5.10128
0.050114 -0.788293 5.10006
0.048365 -0.783781 5.09989
0.050099 -0.776852 5.09444
0.04615 -0.770094 5.09219
0.040364 -0.755518 5.08544
0.042575 -0.763089 5.08878
0.046232 -0.757204 5.08603
0.042363 -0.747889 5.08144
0.046374 -0.744971 5.08091
0.039108 -0.736473 5.07484
0.042715 -0.729872 5.07271
0.038713 -0.724312 5.07053
0.039403 -0.725301 5.0713
0.038623 -0.719286 5.06648
0.038583 -0.714724 5.06214
0.03344 -0.707782 5.05596
0.024678 -0.68578 5.03223
0.026046 -0.676982 5.02914
0.029639 -0.683391 5.03168
0.029614 -0.671309 5.0262
0.027227 -0.663214 5.02164
0.024663 -0.652939 5.01622
0.023279 -0.659108 5.02042
0.021646 -0.658433 5.01948
0.02066 -0.647467 5.01459
0.019197 -0.637747 5.00823
0.024647 -0.641924 5.00885
0.02311 -0.628648 5.00218
0.020192 -0.634022 5.00541
0.019024 -0.623243 5.00046
0.021168 -0.617407 4.99616
0.018625 -0.610428 4.99321
0.012771 -0.59192 4.98482
0.01569 -0.584469 4.98182
0.016452 -0.585549 4.98161
0.011579 -0.578581 4.98053
0.015348 -0.571894 4.97841
0.015232 -0.571835 4.97757
0.010227 -0.564727 4.97581
0.012021 -0.558887 4.97064
0.009988 -0.55003 4.96106
0.010209 -0.552656 4.96388
0.010182 -0.543917 4.95746
0.007507 -0.537545 4.95486
0.005731 -0.538187 4.95547
0.003193 -0.53176 4.95383
0.005332 -0.525371 4.9479
0.006618 -0.522196 4.94493
-0.008946 -0.484182 4.90952
-0.00924 -0.466022 4.90001
-0.008131 -0.456801 4.89535
-0.007716 -0.456767 4.89514
-0.012537 -0.450298 4.89394
-0.010097 -0.444527 4.88959
-0.015503 -0.438204 4.8883
-0.012878 -0.431691 4.88371
-0.017488 -0.425332 4.88298
-0.013259 -0.416318 4.8781
-0.013641 -0.416124 4.87801
-0.018546 -0.409487 4.87694
-0.018208 -0.409892 4.87699
-0.013565 -0.409078 4.87471
-0.018264 -0.403252 4.87302
-0.017892 -0.403636 4.87312
-0.015204 -0.397011 4.86872
-0.014825 -0.39742 4.8689
-0.019393 -0.391128 4.86632
-0.019598 -0.390364 4.86573
-0.020367 -0.379414 4.86075
-0.021003 -0.36479 4.85625
-0.021382 -0.353839 4.85357
-0.022252 -0.339122 4.8481
-0.027024 -0.3321 4.84663
-0.024269 -0.325967 4.84332
-0.024397 -0.311125 4.83765
-0.028822 -0.304601 4.8373
-0.028071 -0.290349 4.82841
-0.03082 -0.281601 4.82515
-0.030178 -0.280596 4.82484
-0.025384 -0.26938 4.82632
-0.024802 -0.26028 4.82728
-0.026168 -0.25344 4.8279
-0.026975 -0.243393 4.82863
-0.026765 -0.237715 4.82257
-0.025816 -0.23136 4.82515
-0.02609 -0.234205 4.82619
-0.028322 -0.21978 4.81868
-0.032443 -0.212497 4.81864
-0.030837 -0.207407 4.81257
-0.03234 -0.195429 4.80705
-0.033136 -0.199285 4.81579
-0.033098 -0.188131 4.80603
-0.031967 -0.181226 4.8089
-0.032353 -0.177053 4.81472
-0.028479 -0.171246 4.82226
-0.019651 -0.163791 4.83533
-0.023434 -0.156422 4.83786
0.124094 -1.20861 5.38791
0.128483 -1.20529 5.39229
0.094237 -1.08157 5.27848
0.091583 -1.06737 5.26728
0.068835 -0.991712 5.20089
0.06369 -0.984857 5.19532
0.068782 -0.98223 5.19399
0.06386 -0.979288 5.19267
0.057652 -0.964122 5.17905
0.060736 -0.959234 5.17624
0.054496 -0.950405 5.16873
0.04365 -0.904662 5.12572
0.04708 -0.899086 5.12327
0.040651 -0.889589 5.11924
0.044825 -0.881313 5.12012
0.040287 -0.873825 5.1177
0.044062 -0.864249 5.11572
0.040298 -0.857809 5.11333
0.044362 -0.851688 5.1123
0.043074 -0.845618 5.11214
0.040157 -0.820896 5.1083
0.039091 -0.806154 5.10461
0.043201 -0.801203 5.10445
0.039726 -0.795814 5.1036
0.039659 -0.795608 5.10346
0.036381 -0.788413 5.10055
0.043129 -0.788295 5.10013
0.040858 -0.783534 5.0992
0.037257 -0.775649 5.09397
0.03674 -0.763011 5.08874
0.035392 -0.747885 5.08213
0.036484 -0.742846 5.07874
0.032314 -0.736732 5.07661
0.03533 -0.730519 5.07324
0.031973 -0.725231 5.07218
0.03217 -0.725299 5.072
0.031553 -0.724909 5.0717
0.035241 -0.719473 5.06862
0.028179 -0.719474 5.06937
0.032078 -0.714253 5.06745
0.018724 -0.688536 5.03458
0.022577 -0.683703 5.03151
0.018367 -0.676824 5.02882
0.022182 -0.671118 5.02656
0.015467 -0.659202 5.02171
0.019785 -0.665778 5.02386
0.017725 -0.653017 5.0181
0.014614 -0.658472 5.02118
0.013818 -0.647598 5.01664
0.012664 -0.645998 5.0155
0.013368 -0.639796 5.01129
0.016169 -0.628684 5.00403
0.013254 -0.634035 5.00727
0.011951 -0.623217 5.00208
0.014692 -0.617692 4.9982
0.011506 -0.610538 4.99529
0.007209 -0.604018 4.99315
0.006668 -0.604225 4.99336
0.009664 -0.597352 4.98882
0.005104 -0.591906 4.98711
0.008241 -0.585439 4.9837
0.008434 -0.585452 4.98359
0.003753 -0.578605 4.98247
0.006957 -0.571656 4.97948
0.002457 -0.564508 4.97689
0.004872 -0.55886 4.97255
0.004157 -0.55334 4.96725
0.004073 -0.546026 4.96083
-0.002615 -0.540451 4.96045
-0.002601 -0.534405 4.95643
-0.009145 -0.506408 4.92813
-0.009283 -0.506092 4.92763
-0.009121 -0.501334 4.92343
-0.012945 -0.469161 4.90392
-0.017876 -0.463044 4.90283
-0.01523 -0.456456 4.89823
-0.020067 -0.449978 4.89711
-0.0183 -0.444571 4.89266
-0.017334 -0.444502 4.89222
-0.020552 -0.431649 4.88626
-0.02066 -0.416324 4.88139
-0.021147 -0.416068 4.88132
-0.024967 -0.405233 4.87624
-0.024652 -0.405595 4.87631
-0.022863 -0.401372 4.87348
-0.021889 -0.396595 4.8702
-0.027141 -0.390433 4.86743
-0.028968 -0.378989 4.86148
-0.024247 -0.383667 4.86333
-0.024117 -0.384874 4.86378
-0.025323 -0.372005 4.85836
-0.030126 -0.364983 4.85694
-0.029625 -0.364843 4.85793
-0.030194 -0.353751 4.85487
-0.026131 -0.346411 4.85176
-0.031115 -0.339417 4.84963
-0.03206 -0.312374 4.84031
-0.030301 -0.30279 4.83691
-0.035418 -0.305302 4.83976
-0.035841 -0.297163 4.83568
-0.033774 -0.298428 4.83615
-0.037091 -0.282974 4.82945
-0.03738 -0.283479 4.82966
-0.034471 -0.283521 4.82751
-0.032136 -0.262102 4.83118
-0.036 -0.255945 4.83247
-0.03489 -0.242624 4.83343
-0.031004 -0.234996 4.82715
-0.030438 -0.23716 4.83211
-0.034638 -0.236225 4.8346
-0.031739 -0.229795 4.83022
-0.034957 -0.231435 4.83215
-0.035575 -0.225999 4.82705
-0.035683 -0.225326 4.82936
-0.034466 -0.217788 4.82365
-0.034916 -0.219461 4.82213
-0.036268 -0.20511 4.81766
-0.03788 -0.201435 4.82059
-0.036524 -0.191743 4.81139
-0.037874 -0.18471 4.81097
-0.037147 -0.185092 4.81127
-0.03036 -0.170189 4.82719
-0.026965 -0.163963 4.83924
0.116143 -1.20765 5.3848
0.11988 -1.20469 5.38948
0.118902 -1.1905 5.38696
0.117004 -1.18062 5.38617
0.063591 -0.994339 5.20242
0.063648 -0.993821 5.20265
0.058715 -0.987473 5.19685
0.058675 -0.982645 5.19321
0.053935 -0.979821 5.19167
0.058794 -0.977467 5.19023
0.058898 -0.977328 5.19023
0.052458 -0.96123 5.17747
0.047468 -0.953884 5.17235
0.040194 -0.910605 5.12795
0.036421 -0.904294 5.12666
0.040108 -0.897857 5.12457
0.040071 -0.897634 5.12497
0.033364 -0.888015 5.12426
0.037274 -0.882083 5.12255
0.033337 -0.875681 5.12072
0.036837 -0.864157 5.11574
0.032728 -0.857732 5.11399
0.036607 -0.851758 5.11286
0.033697 -0.845526 5.11235
0.037897 -0.837155 5.11027
0.036219 -0.827976 5.11006
0.032189 -0.820261 5.1096
0.035789 -0.81371 5.10828
0.03233 -0.807747 5.10794
0.032352 -0.8077 5.10752
0.033774 -0.781963 5.09665
0.028969 -0.775354 5.09321
0.032567 -0.768614 5.09073
0.028485 -0.762844 5.08932
0.032254 -0.75575 5.08691
0.028136 -0.761838 5.0888
0.026848 -0.74789 5.08294
0.029507 -0.742693 5.07928
0.025333 -0.736815 5.07772
0.0279 -0.730814 5.07372
0.024543 -0.725183 5.07212
0.024583 -0.725039 5.07224
0.021155 -0.719588 5.06987
0.02085 -0.719324 5.06947
0.027121 -0.718935 5.06836
0.027906 -0.719229 5.06905
0.022409 -0.713206 5.06419
0.022271 -0.708987 5.0596
0.014722 -0.682808 5.03184
0.011666 -0.688498 5.03546
0.011612 -0.688631 5.03569
0.010624 -0.676756 5.0293
0.007556 -0.659101 5.02258
0.010577 -0.652965 5.01932
0.006156 -0.646755 5.01794
0.007014 -0.647783 5.01891
0.011996 -0.64483 5.01472
0.006279 -0.63411 5.00941
0.007424 -0.635908 5.01048
0.005971 -0.640871 5.01392
0.009 -0.628545 5.0052
0.004947 -0.62315 5.00324
0.007664 -0.617675 4.99986
0.00391 -0.610809 4.99743
0.002273 -0.598094 4.99106
0.000581 -0.585429 4.98601
-0.003089 -0.567047 4.9817
-0.003511 -0.560654 4.9766
-0.001516 -0.554981 4.97071
-0.006737 -0.551263 4.97046
-0.002843 -0.546081 4.96394
-0.008569 -0.541979 4.96375
-0.0083 -0.536224 4.96045
-0.007376 -0.528626 4.95477
-0.014879 -0.50761 4.93115
-0.014413 -0.501185 4.92814
-0.014954 -0.500772 4.92773
-0.018188 -0.492449 4.92221
-0.014427 -0.496433 4.92291
-0.018034 -0.482192 4.91619
-0.019927 -0.46922 4.90776
-0.024974 -0.463046 4.90633
-0.022675 -0.456544 4.90164
-0.023486 -0.453371 4.90029
-0.024475 -0.446883 4.89664
-0.023614 -0.446835 4.89609
-0.023207 -0.438193 4.89087
-0.024479 -0.4405 4.89253
-0.023612 -0.440314 4.89207
-0.028822 -0.440632 4.89411
-0.030856 -0.431119 4.88583
-0.025647 -0.424749 4.88469
-0.0297 -0.408619 4.88084
-0.029581 -0.402912 4.87641
-0.029502 -0.396859 4.87218
-0.029438 -0.396625 4.87258
-0.034785 -0.39061 4.86983
-0.037053 -0.378676 4.86363
-0.032031 -0.384613 4.86536
-0.037153 -0.379003 4.86351
-0.03383 -0.371955 4.85997
-0.034413 -0.361111 4.85734
-0.035074 -0.345983 4.85298
-0.039983 -0.339724 4.85065
-0.03588 -0.332336 4.84768
-0.039944 -0.314149 4.84223
-0.042131 -0.292392 4.83362
-0.044399 -0.281949 4.83217
-0.043633 -0.278891 4.82723
-0.039419 -0.26896 4.83425
-0.038865 -0.262029 4.83426
-0.041276 -0.252827 4.83581
-0.037769 -0.236718 4.83666
-0.038421 -0.231313 4.83389
-0.04147 -0.226613 4.83154
-0.039897 -0.217943 4.82804
-0.038024 -0.210177 4.82352
-0.043158 -0.195082 4.81905
-0.041023 -0.188884 4.81608
-0.041547 -0.181742 4.81545
-0.038363 -0.176434 4.81997
-0.038349 -0.16132 4.83739
0.102133 -1.20923 5.38525
0.109153 -1.20054 5.389
0.074728 -1.1074 5.29464
0.046911 -0.964072 5.1791
0.047266 -0.959284 5.17527
0.042013 -0.966453 5.18061
0.041974 -0.951594 5.17041
0.03855 -0.946422 5.16847
0.041444 -0.941351 5.16566
0.02991 -0.915462 5.13151
0.033165 -0.910078 5.12884
0.029169 -0.903204 5.12797
0.030497 -0.898006 5.12591
0.025918 -0.887876 5.12425
0.029746 -0.882128 5.12301
0.0265 -0.875891 5.12117
0.029947 -0.870103 5.11838
0.025414 -0.857517 5.11412
0.029406 -0.863491 5.1164
0.02926 -0.852229 5.11333
0.025108 -0.846215 5.11069
0.023859 -0.839963 5.11107
0.029222 -0.837677 5.11261
0.028723 -0.82727 5.11195
0.024507 -0.820308 5.11153
0.028577 -0.813779 5.10992
0.023476 -0.78679 5.10151
0.020196 -0.783051 5.09854
0.025318 -0.781592 5.09566
0.020659 -0.775191 5.09334
0.024468 -0.768545 5.09118
0.019923 -0.76171 5.08947
0.023705 -0.755468 5.08726
0.024589 -0.755632 5.08763
0.019152 -0.747533 5.08414
0.019362 -0.74781 5.08417
0.022436 -0.741809 5.08141
0.022163 -0.741802 5.08118
0.020752 -0.730828 5.07459
0.017326 -0.725097 5.07282
0.013001 -0.718947 5.06849
0.007422 -0.682697 5.03241
0.003078 -0.676602 5.03012
0.006034 -0.666633 5.02496
0.003374 -0.653055 5.02193
-0.001151 -0.646423 5.02047
0.000214 -0.642591 5.01718
0.001028 -0.637128 5.01401
0.00194 -0.628524 5.00658
-0.003092 -0.622078 5.00362
-0.004122 -0.610574 4.99811
0.000585 -0.617129 5.00057
-0.000937 -0.604167 4.99454
-0.005146 -0.598155 4.9928
-0.002521 -0.591919 4.98952
-0.004048 -0.578615 4.98505
-0.007208 -0.58549 4.98883
-0.009582 -0.562693 4.97941
-0.00936 -0.55701 4.97607
-0.008393 -0.547988 4.96841
-0.0144 -0.543653 4.96762
-0.014384 -0.537754 4.96355
-0.014155 -0.531884 4.96016
-0.013271 -0.524283 4.95452
-0.020511 -0.508787 4.93482
-0.020687 -0.498525 4.92736
-0.020257 -0.502636 4.93073
-0.02465 -0.491202 4.92695
-0.023687 -0.47711 4.91663
-0.023624 -0.482545 4.92151
-0.028835 -0.47235 4.91714
-0.030779 -0.453418 4.90416
-0.029967 -0.45661 4.90567
-0.03099 -0.446466 4.8988
-0.036485 -0.421965 4.88858
-0.032891 -0.414967 4.88492
-0.036464 -0.404414 4.87911
-0.037411 -0.396802 4.87442
-0.0374 -0.397091 4.87505
-0.039718 -0.384755 4.86817
-0.042331 -0.37183 4.862
-0.043141 -0.361058 4.85864
-0.038995 -0.353748 4.85581
-0.047761 -0.323821 4.84676
-0.045978 -0.306167 4.84053
-0.04949 -0.287953 4.83617
-0.048133 -0.275493 4.83674
-0.043663 -0.26551 4.83967
-0.045862 -0.256909 4.83923
-0.046636 -0.249926 4.83922
-0.043611 -0.243648 4.83689
-0.04671 -0.236495 4.83899
-0.043627 -0.229835 4.83584
-0.044236 -0.2113 4.82641
-0.047579 -0.208645 4.82621
-0.048637 -0.205022 4.82607
-0.046051 -0.201212 4.82137
-0.048981 -0.195164 4.82306
-0.04675 -0.188945 4.81992
-0.046259 -0.183019 4.82657
-0.045865 -0.175458 4.82367
-0.048925 -0.16933 4.82759
0.097105 -1.20157 5.38934
0.066664 -1.10664 5.29233
0.066222 -1.10289 5.29114
0.072086 -1.10276 5.29206
0.071513 -1.10314 5.29194
0.066016 -1.09582 5.28964
0.064602 -1.09607 5.28756
0.064702 -1.09106 5.28379
0.067244 -1.08933 5.28296
0.049013 -1.03276 5.23505
0.049015 -1.02822 5.23138
0.043946 -1.00355 5.20908
0.035614 -0.951559 5.1712
0.03482 -0.94202 5.16599
0.030479 -0.945495 5.16548
0.028173 -0.927016 5.14169
0.023092 -0.929245 5.14356
0.022992 -0.91486 5.1329
0.02279 -0.920051 5.13628
0.02594 -0.9099 5.12978
0.021353 -0.902676 5.12926
0.018818 -0.899487 5.12865
0.022243 -0.893238 5.12663
0.022565 -0.882239 5.12382
0.019026 -0.888017 5.12563
0.022512 -0.87428 5.1199
0.018695 -0.868599 5.11852
0.018088 -0.857333 5.11479
0.021992 -0.863081 5.11639
0.021674 -0.851847 5.11276
0.017229 -0.846375 5.11032
0.018433 -0.835885 5.1105
0.020444 -0.827168 5.11318
0.016517 -0.820341 5.11318
0.020545 -0.813667 5.11136
0.017896 -0.806556 5.11057
0.015482 -0.79728 5.10671
0.018141 -0.791154 5.10208
0.014489 -0.785646 5.10057
0.01452 -0.785265 5.10014
0.016711 -0.781051 5.09552
0.012585 -0.774787 5.09413
0.016261 -0.768418 5.09183
0.012109 -0.761979 5.09036
0.011893 -0.761658 5.09036
0.01614 -0.75555 5.08851
0.015951 -0.755335 5.08856
0.016392 -0.755517 5.0886
0.011353 -0.747831 5.08558
0.011279 -0.748212 5.08699
0.011424 -0.748466 5.08701
0.011934 -0.748425 5.08689
0.011363 -0.742135 5.08212
0.010746 -0.737072 5.07904
0.013424 -0.730856 5.07508
0.008385 -0.730034 5.07492
0.007239 -0.730188 5.0755
0.007449 -0.721619 5.0711
0.011042 -0.726747 5.07297
0.008947 -0.716604 5.06948
0.008662 -0.706609 5.06153
-0.000453 -0.682723 5.03358
-0.004407 -0.677021 5.03234
-0.001056 -0.670633 5.0288
-0.005238 -0.664629 5.02743
-0.001884 -0.658926 5.02504
-0.004554 -0.65291 5.0233
-0.004489 -0.633673 5.01321
-0.005683 -0.638545 5.01567
-0.006232 -0.627374 5.00691
-0.010015 -0.622096 5.00533
-0.007284 -0.616657 5.00148
-0.011239 -0.611249 4.9999
-0.008582 -0.60418 4.99639
-0.012905 -0.597991 4.99551
-0.009909 -0.592007 4.99222
-0.01474 -0.585553 4.9922
-0.011725 -0.578756 4.98867
-0.015499 -0.565038 4.98301
-0.011037 -0.570503 4.98489
-0.015489 -0.558954 4.9792
-0.02364 -0.526437 4.957
-0.020049 -0.521227 4.95314
-0.027559 -0.497166 4.93154
-0.029423 -0.4913 4.93143
-0.02872 -0.483715 4.92712
-0.029049 -0.477714 4.92165
-0.033731 -0.459809 4.90985
-0.034607 -0.464872 4.91354
-0.037913 -0.446539 4.9024
-0.036637 -0.448445 4.90327
-0.035922 -0.44062 4.89716
-0.040979 -0.434329 4.89571
-0.038449 -0.427931 4.89094
-0.045111 -0.409095 4.8843
-0.045215 -0.39704 4.87706
-0.042544 -0.390816 4.87211
-0.045038 -0.378653 4.86634
-0.050409 -0.371857 4.8646
-0.047373 -0.367087 4.86117
-0.052905 -0.350071 4.849
-0.052386 -0.354395 4.85416
-0.048755 -0.339378 4.85207
-0.052893 -0.331712 4.84853
-0.051288 -0.314357 4.84311
-0.051438 -0.314582 4.84265
-0.055855 -0.307081 4.83916
-0.054556 -0.287162 4.83202
-0.052799 -0.269235 4.84183
-0.04922 -0.26297 4.8405
-0.052707 -0.256832 4.84165
-0.05395 -0.249816 4.84065
-0.04984 -0.243792 4.84163
-0.054999 -0.227431 4.83689
-0.0503 -0.22782 4.83917
-0.05486 -0.222656 4.83118
-0.051097 -0.215219 4.82873
-0.054723 -0.216582 4.83271
-0.053911 -0.201375 4.82262
-0.058399 -0.195047 4.82184
-0.053638 -0.188704 4.8217
-0.053033 -0.175597 4.82747
-0.049977 -0.162272 4.83106
0.09378 -1.21131 5.39026
0.061212 -1.10617 5.29218
0.056554 -1.0975 5.28796
0.061142 -1.10064 5.28936
0.058737 -1.09582 5.28692
0.059184 -1.10459 5.29232
0.059566 -1.09354 5.28538
0.059577 -1.08834 5.28239
0.062048 -1.0919 5.28454
0.054644 -1.08595 5.28091
0.040051 -1.03072 5.22934
0.044597 -1.0276 5.22865
0.038055 -1.00276 5.20637
0.038796 -1.00205 5.20651
0.036153 -0.98829 5.19633
0.027418 -0.950614 5.16827
0.025715 -0.952004 5.17064
0.017475 -0.922749 5.13819
0.017729 -0.917021 5.13533
0.015977 -0.906439 5.13275
0.011312 -0.911611 5.1311
0.017843 -0.911351 5.1324
0.011381 -0.899475 5.12969
0.014626 -0.892847 5.12725
0.014766 -0.88006 5.12206
0.015643 -0.874041 5.12116
0.011684 -0.868447 5.11968
0.010507 -0.857037 5.11505
0.014509 -0.862894 5.11672
0.006475 -0.846425 5.10964
0.013714 -0.851341 5.11247
0.00662 -0.841567 5.11022
0.00542 -0.842256 5.10581
0.012531 -0.827381 5.11497
0.00863 -0.802845 5.10887
0.008448 -0.803102 5.10924
0.008235 -0.809568 5.11213
0.014153 -0.806066 5.11072
0.00848 -0.809008 5.112
0.008908 -0.796265 5.10618
0.008694 -0.796666 5.10646
0.014389 -0.799647 5.10717
0.01096 -0.790499 5.10167
0.010826 -0.790922 5.10206
0.006723 -0.784907 5.10033
0.006965 -0.785193 5.10039
0.009359 -0.779681 5.09676
0.005421 -0.774283 5.0957
0.008743 -0.768483 5.0931
0.004487 -0.761999 5.09149
0.008114 -0.755465 5.08933
0.007937 -0.755225 5.08931
0.003628 -0.748239 5.08808
0.003802 -0.748489 5.08808
0.006698 -0.741606 5.08345
0.006345 -0.74116 5.08286
0.003256 -0.738465 5.08084
0.000191 -0.729801 5.07638
0.000201 -0.729835 5.07624
0.004511 -0.726861 5.07449
0.002725 -0.722857 5.07241
0.002799 -0.724638 5.07305
0.000827 -0.721696 5.07249
0.003291 -0.713466 5.06834
-0.002221 -0.710093 5.06736
0.003282 -0.708319 5.06435
-0.001778 -0.704261 5.06359
-0.002316 -0.704935 5.06332
-0.001602 -0.698881 5.05991
-0.007614 -0.682806 5.03548
-0.011714 -0.676991 5.03368
-0.008425 -0.670609 5.03043
-0.012653 -0.664573 5.02891
-0.00802 -0.659399 5.0267
-0.012182 -0.653044 5.02475
-0.011452 -0.6404 5.0204
-0.017817 -0.632541 5.01405
-0.011702 -0.634836 5.01478
-0.011488 -0.634989 5.01447
-0.015424 -0.628618 5.01252
-0.016983 -0.622096 5.00702
-0.014199 -0.616669 5.00325
-0.018093 -0.61137 5.00211
-0.016002 -0.604226 4.99883
-0.020622 -0.599099 4.99891
-0.017771 -0.592256 4.99525
-0.022272 -0.585514 4.99555
-0.019406 -0.578705 4.99198
-0.017749 -0.570616 4.98777
-0.023226 -0.564146 4.98391
-0.028635 -0.535399 4.96515
-0.029502 -0.527457 4.96008
-0.028017 -0.523052 4.9552
-0.035303 -0.491763 4.93716
-0.034448 -0.485072 4.93165
-0.034129 -0.479401 4.92817
-0.040089 -0.4749 4.92744
-0.039898 -0.460525 4.91351
-0.039912 -0.465375 4.91792
-0.040364 -0.454055 4.90875
-0.043022 -0.44692 4.90515
-0.043101 -0.44068 4.90065
-0.048472 -0.434368 4.89893
-0.046037 -0.427925 4.89385
-0.047712 -0.417386 4.88946
-0.050125 -0.402889 4.8816
-0.050292 -0.390792 4.87431
-0.052647 -0.379081 4.87009
-0.056492 -0.364659 4.8614
-0.058888 -0.356598 4.85766
-0.052357 -0.360777 4.85914
-0.058588 -0.351049 4.85271
-0.057712 -0.340342 4.8504
-0.056976 -0.322433 4.84528
-0.060754 -0.314371 4.84196
-0.060599 -0.298873 4.83699
-0.059173 -0.287979 4.83701
-0.060006 -0.274269 4.84203
-0.056881 -0.261312 4.84583
-0.057316 -0.243648 4.84258
-0.059461 -0.234267 4.83875
-0.060228 -0.222904 4.83622
-0.060653 -0.217793 4.83611
-0.060672 -0.201453 4.8251
-0.064584 -0.195142 4.82525
-0.06048 -0.175513 4.82901
-0.055944 -0.169512 4.82995
-0.057761 -0.167425 4.83471
0.057556 -1.12926 5.31792
0.049201 -1.11028 5.29424
0.050424 -1.103 5.29001
0.054062 -1.10764 5.29309
0.051593 -1.1005 5.28863
0.051843 -1.09477 5.28648
0.055487 -1.1003 5.28876
0.049516 -1.08865 5.28223
0.022187 -0.972526 5.1834
0.02241 -0.951823 5.17101
0.011997 -0.924443 5.14187
0.012409 -0.92461 5.14071
0.012128 -0.929323 5.14541
0.012701 -0.91862 5.13808
0.007382 -0.920799 5.14064
0.007998 -0.915076 5.13661
0.008384 -0.90628 5.13332
0.004575 -0.899845 5.13221
0.007808 -0.893206 5.12974
0.010147 -0.885985 5.12633
0.00598 -0.879662 5.12541
0.008697 -0.873909 5.12241
0.005025 -0.868465 5.12134
0.007444 -0.862724 5.11779
0.003623 -0.857046 5.11633
0.006607 -0.851275 5.1134
0.006883 -0.851408 5.11383
0.000127 -0.849738 5.11153
0.002235 -0.845977 5.1111
-0.001242 -0.840853 5.10927
0.0062 -0.831792 5.11554
0.00749 -0.818959 5.11428
0.002686 -0.805959 5.11111
0.002104 -0.795999 5.10772
0.001676 -0.79625 5.10733
-0.000121 -0.784908 5.10186
-0.000341 -0.785239 5.10204
0.003958 -0.790636 5.1034
0.004158 -0.790235 5.10322
0.00224 -0.779448 5.09821
-0.001599 -0.77414 5.0973
0.001285 -0.768654 5.09449
-0.003253 -0.761993 5.09261
0.000515 -0.755582 5.09042
-0.003979 -0.748556 5.08899
-0.001129 -0.741461 5.08386
-0.00126 -0.741217 5.08408
-0.002413 -0.740737 5.08352
-0.00216 -0.735214 5.08029
-0.006383 -0.729835 5.07839
-0.003844 -0.724554 5.07484
-0.007796 -0.719151 5.07334
-0.002371 -0.715952 5.07088
-0.009304 -0.715881 5.07237
-0.006093 -0.710734 5.06955
-0.007968 -0.707256 5.06637
-0.005266 -0.701062 5.06608
-0.00904 -0.692164 5.05483
-0.008977 -0.692094 5.05485
-0.015503 -0.682858 5.03604
-0.01556 -0.682528 5.03591
-0.019352 -0.67691 5.03478
-0.019792 -0.664697 5.03073
-0.019385 -0.664605 5.03061
-0.0157 -0.67069 5.0322
-0.015872 -0.658112 5.02756
-0.015728 -0.647343 5.02261
-0.022523 -0.648003 5.02415
-0.020803 -0.640001 5.01815
-0.024739 -0.633129 5.01538
-0.024545 -0.627373 5.01217
-0.024496 -0.621983 5.00815
-0.020988 -0.616835 5.00567
-0.021139 -0.616403 5.0051
-0.024696 -0.610488 5.00461
-0.021541 -0.603271 5.00149
-0.025259 -0.592223 4.99882
-0.026879 -0.578705 4.99516
-0.025826 -0.576374 4.99156
-0.033212 -0.547872 4.97141
-0.036496 -0.526402 4.95996
-0.034235 -0.520117 4.96062
-0.039807 -0.509425 4.9564
-0.034619 -0.511717 4.9576
-0.034702 -0.506317 4.95313
-0.04039 -0.486128 4.93515
-0.046219 -0.475741 4.93167
-0.04005 -0.480574 4.93184
-0.046178 -0.471142 4.92678
-0.047539 -0.46222 4.91911
-0.046069 -0.456143 4.91331
-0.051183 -0.450175 4.91075
-0.050584 -0.442294 4.90407
-0.053668 -0.427662 4.89668
-0.050804 -0.421523 4.89262
-0.055625 -0.415346 4.89085
-0.052917 -0.409024 4.88612
-0.057734 -0.402903 4.88403
-0.054665 -0.396948 4.88018
-0.062151 -0.378854 4.87079
-0.058696 -0.37188 4.86693
-0.064494 -0.360636 4.85977
-0.065084 -0.350395 4.85681
-0.064869 -0.346993 4.85117
-0.063782 -0.318825 4.84536
-0.069984 -0.313602 4.84152
-0.065002 -0.305809 4.83895
-0.063924 -0.294594 4.8566
-0.065457 -0.284433 4.84313
-0.067561 -0.274117 4.84335
-0.065688 -0.274951 4.84699
-0.062538 -0.268229 4.84489
-0.064107 -0.261148 4.84777
-0.060349 -0.255169 4.84691
-0.062752 -0.248763 4.84873
-0.061341 -0.227643 4.84073
-0.067189 -0.219768 4.83971
-0.067713 -0.214546 4.83461
-0.069898 -0.190186 4.82209
-0.064182 -0.167459 4.83761
-0.057628 -0.161694 4.84658
0.044279 -1.10813 5.29229
0.045277 -1.10578 5.29115
0.045401 -1.10059 5.2883
0.042365 -1.09588 5.28581
0.037671 -1.08696 5.2786
0.01732 -1.01476 5.20596
0.017817 -1.00793 5.20414
0.015835 -1.00157 5.20012
0.015991 -0.996208 5.1973
0.010838 -0.971237 5.17797
0.011225 -0.973949 5.18289
0.010874 -0.979913 5.18545
0.008314 -0.959117 5.17468
0.007284 -0.935303 5.15212
0.002363 -0.932006 5.1513
0.001534 -0.92235 5.14337
0.002915 -0.916612 5.13984
0.003009 -0.911045 5.1367
0.001537 -0.905505 5.13541
-0.002353 -0.899867 5.13407
0.000197 -0.892451 5.13128
0.002877 -0.885959 5.12803
-0.000944 -0.879589 5.12678
0.001833 -0.873862 5.12377
-0.005098 -0.873754 5.125
-0.002021 -0.868302 5.1224
0.000749 -0.862825 5.11934
-0.003139 -0.857136 5.11773
-0.006088 -0.862334 5.12064
-0.000577 -0.85116 5.11422
-0.006993 -0.85183 5.11541
-0.007076 -0.851182 5.11526
-0.004378 -0.845944 5.11198
-0.007793 -0.840876 5.11019
-0.002361 -0.836386 5.11061
-0.003185 -0.830251 5.11062
-0.006203 -0.810035 5.11449
-0.007001 -0.794494 5.10859
-0.00671 -0.785281 5.10425
-0.003139 -0.790304 5.10507
-0.004525 -0.77935 5.10015
-0.008394 -0.773767 5.09906
-0.005736 -0.768487 5.09564
-0.010428 -0.762113 5.0942
-0.00712 -0.755889 5.0914
-0.012412 -0.748423 5.08943
-0.010056 -0.740933 5.08508
-0.00977 -0.74164 5.08556
-0.014013 -0.735651 5.08306
-0.009143 -0.735078 5.08172
-0.013166 -0.729776 5.07999
-0.010197 -0.724593 5.0769
-0.010818 -0.724479 5.07639
-0.014804 -0.719135 5.07486
-0.015927 -0.715884 5.07434
-0.012851 -0.710842 5.07144
-0.013936 -0.708191 5.07038
-0.014391 -0.698875 5.0615
-0.023531 -0.682136 5.03562
-0.022752 -0.682927 5.03769
-0.02666 -0.677088 5.03675
-0.027444 -0.664687 5.03163
-0.023371 -0.670854 5.03343
-0.023746 -0.658072 5.02851
-0.028079 -0.640454 5.01897
-0.030723 -0.630163 5.01391
-0.031703 -0.621978 5.00971
-0.028437 -0.616367 5.00654
-0.032386 -0.610421 5.0057
-0.030066 -0.598394 4.99958
-0.03341 -0.580695 4.99316
-0.041144 -0.563244 4.978
-0.041255 -0.551409 4.96979
-0.039098 -0.538269 4.96539
-0.047651 -0.510556 4.95373
-0.04298 -0.50361 4.95226
-0.049309 -0.482071 4.93566
-0.051973 -0.473567 4.92954
-0.055595 -0.462011 4.92061
-0.053339 -0.456135 4.91588
-0.058258 -0.4502 4.91377
-0.05612 -0.444311 4.90897
-0.056277 -0.43799 4.90451
-0.056038 -0.434325 4.90252
-0.058441 -0.421508 4.89506
-0.061223 -0.427912 4.89959
-0.06328 -0.415323 4.89324
-0.060578 -0.409016 4.8884
-0.062581 -0.396854 4.88233
-0.063078 -0.383501 4.87472
-0.067161 -0.371827 4.86843
-0.07102 -0.354518 4.85904
-0.071182 -0.347941 4.85464
-0.078019 -0.333476 4.83903
-0.07416 -0.333185 4.84434
-0.069936 -0.316055 4.84802
-0.074426 -0.304768 4.84002
-0.071134 -0.287693 4.85428
-0.069266 -0.281332 4.85007
-0.072744 -0.275043 4.84978
-0.073266 -0.275026 4.84566
-0.069949 -0.268399 4.84658
-0.071265 -0.261349 4.84983
-0.067687 -0.25407 4.84957
-0.069013 -0.247845 4.85292
-0.066309 -0.242161 4.84893
-0.066917 -0.236404 4.85
-0.066442 -0.227974 4.84611
-0.074022 -0.222544 4.84292
-0.07569 -0.21459 4.83707
-0.071476 -0.208259 4.83387
-0.06998 -0.174416 4.83093
-0.072706 -0.167468 4.83774
-0.06879 -0.160238 4.83855
-0.066638 -0.161516 4.84042
0.03943 -1.11068 5.29352
0.034584 -1.10933 5.29378
0.039147 -1.10624 5.29008
0.031471 -1.10128 5.28688
0.036714 -1.10673 5.29026
0.036759 -1.10135 5.28773
0.028379 -1.08851 5.27619
0.012252 -1.01193 5.20477
0.012164 -1.01741 5.2076
0.01228 -1.00689 5.20166
0.010718 -0.994062 5.19525
0.0039 -0.981728 5.18804
0.006158 -0.975873 5.18539
0.006241 -0.98021 5.1893
0.006245 -0.965595 5.17704
0.002265 -0.960212 5.17699
-0.002296 -0.918657 5.14268
-0.002162 -0.912928 5.13966
-0.007334 -0.920028 5.14555
-0.007173 -0.914228 5.14276
-0.008654 -0.912924 5.14105
-0.005493 -0.905343 5.13649
-0.008891 -0.900182 5.13517
-0.009335 -0.89973 5.13522
-0.006378 -0.89416 5.13253
-0.007013 -0.892295 5.1323
-0.008204 -0.879357 5.1276
-0.004491 -0.885895 5.12932
-0.011689 -0.885833 5.13037
-0.013057 -0.873189 5.12473
-0.009491 -0.867819 5.1228
-0.009744 -0.857125 5.11861
-0.011692 -0.861648 5.12178
-0.011629 -0.861654 5.12208
-0.013338 -0.851077 5.11694
-0.013627 -0.851179 5.11617
-0.010975 -0.845943 5.11283
-0.010541 -0.846323 5.11366
-0.010788 -0.846013 5.11309
-0.013792 -0.842223 5.11184
-0.014212 -0.84002 5.11153
-0.01427 -0.839402 5.11169
-0.009646 -0.836221 5.1106
-0.011498 -0.832221 5.11133
-0.009691 -0.816086 5.11692
-0.009947 -0.801611 5.1108
-0.013609 -0.794582 5.11056
-0.013033 -0.790936 5.10809
-0.010868 -0.779569 5.10274
-0.015903 -0.771828 5.10155
-0.013113 -0.766714 5.09813
-0.01732 -0.761113 5.09619
-0.014727 -0.755849 5.09229
-0.018912 -0.74974 5.09031
-0.017257 -0.741722 5.08668
-0.021394 -0.736131 5.08396
-0.020337 -0.729579 5.08108
-0.01719 -0.724472 5.07825
-0.022182 -0.719006 5.0759
-0.01854 -0.713558 5.07358
-0.019709 -0.710672 5.0725
-0.030047 -0.682648 5.03915
-0.03376 -0.677164 5.03843
-0.03086 -0.670964 5.03486
-0.031494 -0.658224 5.02949
-0.034758 -0.651048 5.02669
-0.033131 -0.642777 5.02264
-0.039018 -0.634147 5.0165
-0.035495 -0.628516 5.0133
-0.039367 -0.622536 5.01032
-0.035826 -0.616009 5.00748
-0.042801 -0.594964 4.99888
-0.036278 -0.595037 5.00209
-0.040754 -0.580519 4.99015
-0.045681 -0.55852 4.97161
-0.046038 -0.559227 4.9716
-0.05001 -0.5514 4.97047
-0.045734 -0.544194 4.96818
-0.051684 -0.525443 4.95864
-0.0578 -0.471727 4.92732
-0.063677 -0.462278 4.92218
-0.058043 -0.466068 4.92219
-0.060769 -0.456104 4.91823
-0.063437 -0.444264 4.91164
-0.065958 -0.4414 4.91057
-0.063682 -0.434331 4.90507
-0.066167 -0.42151 4.89769
-0.069597 -0.410766 4.89313
-0.067401 -0.404196 4.88771
-0.072742 -0.398718 4.88651
-0.069364 -0.379039 4.87404
-0.074783 -0.372102 4.87121
-0.071997 -0.364439 4.86624
-0.076427 -0.357505 4.86376
-0.076463 -0.351069 4.85936
-0.077374 -0.34109 4.84785
-0.082118 -0.33494 4.84552
-0.079858 -0.329284 4.85053
-0.08129 -0.328944 4.85265
-0.076104 -0.321745 4.8486
-0.081018 -0.314364 4.85063
-0.077847 -0.307858 4.85254
-0.078976 -0.300513 4.85522
-0.074232 -0.294603 4.85733
-0.073948 -0.294415 4.85621
-0.078081 -0.288115 4.85741
-0.077612 -0.287735 4.8572
-0.075355 -0.281752 4.85522
-0.075007 -0.281382 4.85478
-0.077515 -0.275277 4.85712
-0.07284 -0.269084 4.85312
-0.075025 -0.269022 4.85561
-0.075312 -0.263142 4.85589
-0.076713 -0.252491 4.85495
-0.074411 -0.245746 4.85081
-0.077514 -0.238981 4.85105
-0.076735 -0.238922 4.85232
-0.073173 -0.232213 4.8486
-0.079581 -0.208348 4.83664
-0.08348 -0.194998 4.82734
-0.078652 -0.173204 4.83472
-0.077385 -0.177659 4.83362
-0.07487 -0.161579 4.84186
-0.073862 -0.158017 4.85587
0.026931 -1.11669 5.29353
0.027527 -1.11152 5.29083
0.030238 -1.11541 5.29415
0.030859 -1.10705 5.28897
0.021709 -1.09485 5.27698
0.018959 -1.07581 5.2646
0.007491 -1.01926 5.20991
0.007151 -1.01389 5.20707
-0.000847 -1.01404 5.2034
-0.0023 -0.983104 5.18926
-0.000028 -0.977179 5.18667
-0.00431 -0.967256 5.18398
0.000628 -0.965735 5.18064
-0.014422 -0.913267 5.14328
-0.011921 -0.90542 5.1378
-0.012221 -0.894989 5.13372
-0.015424 -0.900203 5.13629
-0.018811 -0.885759 5.13102
-0.018703 -0.874714 5.12725
-0.018385 -0.861726 5.12171
-0.018418 -0.86176 5.12212
-0.017628 -0.863453 5.12348
-0.018899 -0.84827 5.11577
-0.017331 -0.844804 5.11446
-0.017196 -0.845051 5.11456
-0.019135 -0.838694 5.11156
-0.021016 -0.839835 5.11264
-0.022804 -0.842873 5.11392
-0.019626 -0.815153 5.11587
-0.01615 -0.809105 5.11344
-0.018955 -0.803284 5.1129
-0.020407 -0.794255 5.11201
-0.023001 -0.78582 5.1086
-0.016515 -0.785716 5.10691
-0.02066 -0.77611 5.1049
-0.016705 -0.782296 5.1069
-0.019766 -0.766576 5.09953
-0.022258 -0.755772 5.09308
-0.020339 -0.74832 5.08992
-0.024483 -0.741608 5.08713
-0.024581 -0.741996 5.08755
-0.028227 -0.736398 5.08552
-0.029283 -0.718553 5.07685
-0.025683 -0.711755 5.07464
-0.025528 -0.707875 5.07058
-0.036918 -0.682416 5.04086
-0.038386 -0.670963 5.03644
-0.043402 -0.662432 5.03083
-0.040669 -0.667404 5.03476
-0.039112 -0.656862 5.02845
-0.042244 -0.650791 5.02506
-0.039055 -0.640449 5.02011
-0.041397 -0.643252 5.02175
-0.040007 -0.634181 5.01637
-0.043545 -0.628431 5.01307
-0.047252 -0.623755 5.00941
-0.046984 -0.623475 5.00935
-0.043404 -0.61 5.00396
-0.051568 -0.571514 4.97805
-0.055292 -0.571657 4.97907
-0.054128 -0.558783 4.97367
-0.058684 -0.551455 4.97077
-0.054427 -0.544161 4.96802
-0.054453 -0.532066 4.96225
-0.059214 -0.523076 4.95538
-0.059207 -0.517267 4.95125
-0.066078 -0.503824 4.94204
-0.059386 -0.509855 4.94766
-0.065808 -0.492534 4.93734
-0.063372 -0.492283 4.93872
-0.063956 -0.475536 4.92929
-0.064133 -0.468174 4.9257
-0.069762 -0.464387 4.92571
-0.068458 -0.456053 4.92069
-0.07275 -0.443572 4.91458
-0.066928 -0.448048 4.91538
-0.072129 -0.437458 4.9098
-0.07394 -0.421155 4.89975
-0.06927 -0.427295 4.90194
-0.072819 -0.416713 4.89645
-0.077493 -0.410744 4.89492
-0.075112 -0.404171 4.88962
-0.077342 -0.392653 4.88447
-0.077235 -0.386044 4.88068
-0.077156 -0.379163 4.87664
-0.079994 -0.363578 4.86779
-0.083271 -0.352704 4.86188
-0.083649 -0.347181 4.85649
-0.08572 -0.335992 4.85491
-0.0811 -0.322382 4.85371
-0.086761 -0.324159 4.85737
-0.085765 -0.317333 4.85573
-0.085408 -0.309712 4.85341
-0.08546 -0.300546 4.85799
-0.081631 -0.294442 4.85776
-0.081923 -0.294428 4.85744
-0.081795 -0.281807 4.85816
-0.081397 -0.281435 4.85782
-0.084573 -0.273707 4.85881
-0.07881 -0.269117 4.85669
-0.078277 -0.269276 4.85756
-0.081494 -0.263145 4.85917
-0.082263 -0.24585 4.85287
-0.085363 -0.239084 4.85313
-0.081192 -0.23222 4.85112
-0.086687 -0.221906 4.84278
-0.083434 -0.214634 4.84001
-0.087779 -0.206557 4.83673
